# .PCD v0.7 - Point Cloud Data file format
VERSION 0.7
FIELDS x y z
SIZE 4 4 4
TYPE F F F
COUNT 1 1 1
WIDTH 160
HEIGHT 1
VIEWPOINT 0 0 0 1 0 0 0
POINTS 160
DATA ascii
-1 0.5 5
-0.89999998 0.5 5
-0.80000001 0.5 5
-0.69999999 0.5 5
-0.60000002 0.5 5
-0.5 0.5 5
-0.40000001 0.5 5
-0.30000001 0.5 5
-0.2 0.5 5
-0.1 0.5 5
0 0.5 5
0.1 0.5 5
0.2 0.5 5
0.30000001 0.5 5
0.40000001 0.5 5
0.5 0.5 5
0.60000002 0.5 5
0.69999999 0.5 5
0.80000001 0.5 5
0.89999998 0.5 5
1 0.5 5
-1 -0.40000001 5
-1 -0.30000001 5
-1 -0.2 5
-1 -0.1 5
-1 0 5
-1 0.1 5
-1 0.2 5
-1 0.30000001 5
-1 0.40000001 5
1 -0.40000001 5
1 -0.30000001 5
1 -0.2 5
1 -0.1 5
1 0 5
1 0.1 5
1 0.2 5
1 0.30000001 5
1 0.40000001 5
-1 -0.5 5
-0.89999998 -0.5 5
-0.80000001 -0.5 5
-0.69999999 -0.5 5
-0.60000002 -0.5 5
-0.5 -0.5 5
-0.40000001 -0.5 5
-0.30000001 -0.5 5
-0.2 -0.5 5
-0.1 -0.5 5
0 -0.5 5
0.1 -0.5 5
0.2 -0.5 5
0.30000001 -0.5 5
0.40000001 -0.5 5
0.5 -0.5 5
0.60000002 -0.5 5
0.69999999 -0.5 5
0.80000001 -0.5 5
0.89999998 -0.5 5
1 -0.5 5
-1 0.5 6
-0.89999998 0.5 6
-0.80000001 0.5 6
-0.69999999 0.5 6
-0.60000002 0.5 6
-0.5 0.5 6
-0.40000001 0.5 6
-0.30000001 0.5 6
-0.2 0.5 6
-0.1 0.5 6
0 0.5 6
0.1 0.5 6
0.2 0.5 6
0.30000001 0.5 6
0.40000001 0.5 6
0.5 0.5 6
0.60000002 0.5 6
0.69999999 0.5 6
0.80000001 0.5 6
0.89999998 0.5 6
1 0.5 6
-1 -0.40000001 6
-1 -0.30000001 6
-1 -0.2 6
-1 -0.1 6
-1 0 6
-1 0.1 6
-1 0.2 6
-1 0.30000001 6
-1 0.40000001 6
1 -0.40000001 6
1 -0.30000001 6
1 -0.2 6
1 -0.1 6
1 0 6
1 0.1 6
1 0.2 6
1 0.30000001 6
1 0.40000001 6
-1 -0.5 6
-0.89999998 -0.5 6
-0.80000001 -0.5 6
-0.69999999 -0.5 6
-0.60000002 -0.5 6
-0.5 -0.5 6
-0.40000001 -0.5 6
-0.30000001 -0.5 6
-0.2 -0.5 6
-0.1 -0.5 6
0 -0.5 6
0.1 -0.5 6
0.2 -0.5 6
0.30000001 -0.5 6
0.40000001 -0.5 6
0.5 -0.5 6
0.60000002 -0.5 6
0.69999999 -0.5 6
0.80000001 -0.5 6
0.89999998 -0.5 6
1 -0.5 6
-1 0.5 5.0999999
-1 0.5 5.0999999
-1 0.5 5.1999998
-1 0.5 5.3000002
-1 0.5 5.4000001
-1 0.5 5.5
-1 0.5 5.5999999
-1 0.5 5.6999998
-1 0.5 5.8000002
-1 0.5 5.9000001
1 0.5 5.0999999
1 0.5 5.0999999
1 0.5 5.1999998
1 0.5 5.3000002
1 0.5 5.4000001
1 0.5 5.5
1 0.5 5.5999999
1 0.5 5.6999998
1 0.5 5.8000002
1 0.5 5.9000001
-1 -0.5 5.0999999
-1 -0.5 5.0999999
-1 -0.5 5.1999998
-1 -0.5 5.3000002
-1 -0.5 5.4000001
-1 -0.5 5.5
-1 -0.5 5.5999999
-1 -0.5 5.6999998
-1 -0.5 5.8000002
-1 -0.5 5.9000001
1 -0.5 5.0999999
1 -0.5 5.0999999
1 -0.5 5.1999998
1 -0.5 5.3000002
1 -0.5 5.4000001
1 -0.5 5.5
1 -0.5 5.5999999
1 -0.5 5.6999998
1 -0.5 5.8000002
1 -0.5 5.9000001
